x,y,z
2.4219091884013766,1.2535103169749642,0.6899544567530008
2.424349484014256,1.3709485015358638,0.6760076871149772
2.4013484603249617,1.478058045215919,0.655663378008367
2.4159283892607952,1.1383838124177452,0.5987828180188001
2.3929459723894064,1.2378316091200576,0.5758535158212971
2.399878432469009,1.3559496667048434,0.5612068686293479
2.40885237674507,1.4804167781337985,0.5479015307623852
2.393422799477749,1.1277791295659727,0.4910422973924372
2.3849645787778475,1.2332808169428169,0.471209462474983
2.384756973090683,1.346582518539491,0.4536796660325701
2.404416062577805,1.4752054328098834,0.4399750493243778
2.3705167821117814,1.1171375328543862,0.387111166740535
2.3718575853952037,1.2255064277447028,0.3680368018529968
2.387130120366705,1.346274537710679,0.3511751781051076
2.4105604142541868,1.477238593937722,0.3352211133569854
2.3943024616947377,1.128346811824056,0.292776833906821
2.3870614463063005,1.2324120250488282,0.270367092317691
2.392847028074719,1.3483430305437998,0.2506357884438528
2.412443951161224,1.476771711576761,0.2313073204443502
2.392043580685414,1.1260069991518222,0.1950311968254643
2.3934803032295195,1.235302902028398,0.1728564451378225
2.394456130294817,1.3481486807893042,0.150263710509895
2.3957909708294447,1.4648536286698302,0.1269272316490606
2.374634805728886,1.1169010882277095,0.0975546132298896
2.388366187295599,1.2310801521799295,0.0741154407902655
2.392978743521472,1.3459970777821917,0.0496014784805419
2.396594049330892,1.4649998557384163,0.024365764092982
2.3848295922351253,1.120628860892482,0.0017935874180359
2.3805468993515486,1.2264187421746362,-0.0240239947304612
2.386514151510142,1.3411548260570634,-0.0499825455241149
2.373609852361639,1.4489588474079242,-0.0775809263008292
2.358427575250049,1.1070168824876685,-0.0937113214625524
2.345895283833394,1.2072200822896162,-0.1194813219056537
2.3543167038789883,1.3216554018538746,-0.1484439171972242
2.3607108788737823,1.440010385298078,-0.1784811884933552
2.3552492104335934,1.1040203901523902,-0.1886899557681672
2.3631475307625007,1.2146899754157034,-0.2182161882907695
2.3774764398429,1.3328564104925078,-0.2495361070835771
2.530753641823342,1.542523041676903,-0.3005811730126156
2.380582157871642,1.1139193653771395,-0.2876605211775503
2.342836074228885,1.202544248357476,-0.3132259902618662
2.360520469900274,1.3224303056615894,-0.348001781200509
2.4431838475160954,1.4880957625584597,-0.3961909446426831
2.382527451452284,1.1133600300351567,-0.3859479831456118
2.407341495464597,1.233902635734402,-0.4228888441176641
2.427713852384149,1.3584043378336244,-0.4618902090118062
2.401451619813431,1.4623327787362157,-0.4956183317896712
2.492703345930038,1.162725865988976,-0.5076486721960501
2.421658975708453,1.4748116468913472,-0.608685641634144
2.4386066726461904,1.1380737824148115,0.822546098199218
2.4382177065404558,1.2524819344990692,0.8055014469174252
2.448802701435211,1.3772965793216845,0.7954996795657141
2.449585579755944,1.501166771510013,0.7839087104953193
2.4293039011632978,1.1347135704115805,0.7074152237365023
2.4283303825715734,1.2474030215295686,0.6906903316336095
2.392107236014166,1.343046888685538,0.6658652377947579
2.4233237362006537,1.4813520530810986,0.6604195290323689
2.418525673420093,1.130553311633094,0.5985640689909426
2.394992396371176,1.229590997701865,0.5754354496491569
2.3980447834401386,1.345224679794489,0.5598103314267722
2.4167348043922567,1.475065458811315,0.5486625034657217
2.384401685928016,1.114601849293067,0.4884876417586521
2.385231928428692,1.2241591726879877,0.4705180199561257
2.38973759573444,1.3397423114064997,0.4538431020187976
2.401336682285789,1.4631946434610283,0.4385880784165919
2.3667635152469293,1.1065078799335384,0.3859420806829153
2.365028295403407,1.212799457686916,0.3663980600369537
2.3860563016706107,1.3360369739369156,0.3504125945215014
2.4091432467664795,1.4662221888409073,0.3343969005172793
2.3860476526101744,1.1155235108000292,0.2913475739008679
2.3881747615271416,1.2237216273836906,0.2700666850935486
2.392626950399245,1.3385644325541242,0.2501813933399084
2.418666704651677,1.4703989775916455,0.2314703249328101
2.3882579293709094,1.115287199435011,0.194442645651122
2.398147154263444,1.2284089253356856,0.1729204904145876
2.393351305077733,1.3378730418300628,0.1499360936232853
2.395150499441112,1.4543855354544806,0.1266562992471898
2.373522514055439,1.1074977904900938,0.0973688632560113
2.382342451521955,1.2187389832898377,0.0738121351486077
2.3866216611765543,1.3327992987021702,0.0493847223673976
2.389110296257669,1.4503754609493862,0.0242443269631659
2.3828182466405274,1.110772082876468,0.00178950344771
2.3807370806694923,1.2172886598779444,-0.0239881109389375
2.383632415000691,1.3299295657804142,-0.0498365029606472
2.3874467651000515,1.4473702371492554,-0.0778876815172925
2.3645306258644183,1.101041617835944,-0.093819154012142
2.3495879881273383,1.2000173063733273,-0.1194813220160301
2.346149948123403,1.3076207786572889,-0.1476753451554121
2.358289373406807,1.4286246854516091,-0.1779659061866518
2.361338322901734,1.0980510737951807,-0.1889070060837175
2.3260243719768394,1.186600755571933,-0.214451021966041
2.356320514001533,1.3115111728881412,-0.2468921345097472
2.415466830446721,1.462109768771421,-0.2863542603460398
2.3812834584690425,1.1053549292106273,-0.2873341262739043
2.3580169885514697,1.201210421566884,-0.3147614065508604
2.36109932061055,1.3132536039038811,-0.3474915054838632
2.470621757763993,1.4944352947606767,-0.3998949273597414
2.3976015018075763,1.1114549203215658,-0.3878356047152854
2.404951525816436,1.2233754858675645,-0.4218076763516676
2.4456679065973845,1.358614771938211,-0.4645108762885341
2.410983079974849,1.4580161104196951,-0.4966599237496458
2.515893426722825,1.164158267004762,-0.5116415901328554
2.4504339181793133,1.482048803705709,-0.6147725252649763
2.442086614896134,1.1305868188994763,0.8225460959596587
2.440339238863434,1.2441241832794343,0.8049375290127656
2.43537498203377,1.359926141508831,0.7897785874719716
2.4467625753946893,1.4891304908044,0.7815396045939234
2.4266326003731318,1.1244096373382546,0.7056294120080567
2.4286912360125004,1.2381858277549875,0.6897091828167469
2.431018151586537,1.355100853703144,0.6755359740089754
2.435350498164245,1.4784594620747498,0.662457830658312
2.4122452599252244,1.1186125790338517,0.5961575328806907
2.397882144210206,1.2217935195005232,0.5752264169018354
2.3935997518529404,1.3330934590115378,0.5578153033646432
2.41537206529009,1.4640818661838395,0.5473308158890549
2.3895939608059167,1.1081086268849791,0.4888526006509023
2.3880985637458494,1.216388564818266,0.470345164992422
2.390388560154053,1.330485220453947,0.4531893882363987
2.3982062821198595,1.4512167627167476,0.4372011360148217
2.3674549167409302,1.097992883633624,0.3855036607191071
2.363440691013173,1.2028419710672376,0.3655786748375869
2.382341548740252,1.3243729226681171,0.3492686925311612
2.406831301182483,1.4547147719655784,0.3334549103430883
2.384048786950281,1.1056889057797514,0.2906879293395722
2.3919176562159934,1.2163890627032774,0.2700666842255748
2.3949811136915,1.3302505296076652,0.2499996575794725
2.411221171906694,1.455759806927559,0.2303292683836389
2.385334007398586,1.1050205119331955,0.1939276617494298
2.3992358826612405,1.219689063344253,0.1727283552809335
2.393079310735928,1.3281013989043515,0.1496630894345367
2.399601232986811,1.4470304886135972,0.1266562992927977
2.3741884389421437,1.0989514796215942,0.0972574172949776
2.376265849947418,1.2064465009398009,0.0735088369963646
2.388076164622553,1.3240165295198163,0.0493305307331547
2.387554354491381,1.4394248829525824,0.0241836067198415
2.385307373934828,1.1030367619229189,0.0017888227740537
2.3764350427139904,1.2059064057839728,-0.0239073745213647
2.3798299444841957,1.3182502135924532,-0.0496722101525122
2.3721792229619263,1.4281803890432647,-0.0772462836235164
2.3697120370550278,1.0946202720538831,-0.0938910519555621
2.3452391347907824,1.1887383362204165,-0.119074162219337
2.3466559482905835,1.2984831206360898,-0.1474557612531296
2.3575306069935094,1.4182961567016712,-0.1775794444653265
2.3619791751902137,1.0895480885084865,-0.1886899563689028
2.379447883079256,1.204668818847145,-0.2190347080546322
2.369920809792787,1.3095740076350335,-0.2478950128630318
2.364516090024008,1.421374843453359,-0.2797957526989831
2.383760346405197,1.097628284279363,-0.2872253460114308
2.359032560544902,1.1926264417067671,-0.3144070862178127
2.3468840926692227,1.2959354670058834,-0.3448126058887075
2.488780900482164,1.4950096326564992,-0.4020898976113439
2.376729259795288,1.092933097781433,-0.3839151377548859
2.4139852000410444,1.21866303534725,-0.4227344072859097
2.4506884954269004,1.3515816495570252,-0.4646746706508756
2.4331743280535707,1.4612600544361023,-0.5003054615330004
2.502472017850075,1.1486396937595411,-0.5081931609265014
2.4583219523574056,1.47653771523819,-0.6156120590054698
2.435115033214643,1.118299984911132,0.8190384238788859
2.4390080102929024,1.234032668419183,0.8032458888153858
2.432803644577997,1.348715913934091,0.7875991432019106
2.444714637638504,1.4776246890855416,0.7794337150267291
2.4256781968866408,1.1149403899612176,0.7043538736801699
2.42728829760056,1.2281028415670905,0.6882375439316188
2.430062390177536,1.3448129204724155,0.6741207211269719
2.437372487756165,1.4694722902166306,0.6617783973545406
2.4165521198117386,1.111614368324992,0.5963763382040006
2.397255970535973,1.2122247426232244,0.5741813102873998
2.395963253803944,1.3247953751998545,0.5574163086658767
2.4148058746307624,1.4536268519479802,0.5461893291268274
2.3903026039182387,1.0995395996617134,0.4883051905091549
2.3918192576606327,1.2090562120132324,0.4703451656478656
2.391868767803137,1.3217138719013544,0.4526990817701101
2.3933316093545347,1.4382541058131697,0.4355059522912748
2.3690149527833184,1.089897494851639,0.3852113894112025
2.3706569849345103,1.1973719185697242,0.3661249232446547
2.3811831476384118,1.314182032086528,0.34850608243136
2.405322835241761,1.4437464279385204,0.3326306967815651
2.3811089645554424,1.0954616186176918,0.2899183147206935
2.391196936360541,1.2068036059870524,0.2695660052869588
2.3946907724821624,1.3204921395385425,0.2495452627529538
2.411401949019637,1.4457929334894415,0.2299217512566091
2.383275629600695,1.0951985918809266,0.1934862441025243
2.4020756184079994,1.2118729746019998,0.1726643101391568
2.3910208832444866,1.3173802287698642,0.149280875008022
2.398887119920908,1.4365823325080629,0.1263853811918176
2.37754881730534,1.09166235333638,0.0972574172850544
2.3781706151092825,1.1982509270437744,0.0734536950830851
2.38949924031824,1.3152374232355926,0.0492763426222766
2.3876692707855143,1.4295247848175352,0.0241402367384042
2.385953377318211,1.0944626793891816,0.001786780731138
2.3836958979385563,1.200408957081076,-0.0239432565739091
2.382110767054007,1.3099791424222802,-0.0496356985181739
2.374833621031865,1.4198699533178227,-0.0771905155462041
2.379418724307085,1.0902589719463291,-0.0941426729295211
2.348874988968033,1.181537670033939,-0.1190741620099316
2.338376737617325,1.2845471446880847,-0.1466871895168378
2.35930076399599,1.4095212897073353,-0.1773862067044327
2.365310671690574,1.0822965476831907,-0.1886899561648068
2.3884760096245907,1.2000478195604942,-0.2195258208470751
2.364323437316849,1.2970283804949474,-0.2468921345227759
2.380825387341388,1.4212533410092991,-0.281208353235155
2.372649362512767,1.083701918079312,-0.2854845645595095
2.3369411395116555,1.1724697799996946,-0.3109819055425186
2.365634080929577,1.2968343808334468,-0.3469812596016723
2.4933559096105182,1.4873671228356848,-0.402089898156163
2.380971390216729,1.0860468100227827,-0.3840603635116203
2.415062656006473,1.2099236172947267,-0.4222710415187096
2.436652315376252,1.334107657325679,-0.4612350353698652
2.465557966915405,1.4704346658991276,-0.506034124729669
2.5149341160321472,1.14503165775001,-0.5100081226805311
2.4787946646875723,1.4785048598440682,-0.6196000259034479
2.439404714347686,1.111220412737785,0.8193307252006993
2.44449747109149,1.2274050449849374,0.8038098077736323
2.430186527653354,1.3375343572419152,0.7854196995161173
2.440964840929593,1.4651524494666996,0.7768013948403883
2.420289498363229,1.103482102182623,0.7018027946984015
2.4293119404055035,1.2197802400336375,0.6877469982959685
2.427363083345321,1.333607857100051,0.6722337567116152
2.440197934238297,1.4609869835505165,0.6613254606964025
2.4164003711636237,1.1025750373280432,0.5955012255939824
2.400963809553478,1.2048643456525734,0.5741813108625569
2.3982984016700786,1.3164953385993243,0.5570172573964267
2.4049289589373988,1.437648034286656,0.5429551802547589
2.3891921808227106,1.090160294210767,0.4873928210603925
2.3911154311937994,1.199504327548628,0.4694808691153342
2.3941825162799724,1.3134205074662764,0.4523722385091702
2.397732854175357,1.4309046595017678,0.4355059521803081
2.371447441318772,1.0822136002461236,0.3850652668127567
2.361035024563877,1.1834347010917965,0.364076488907328
2.381724233630002,1.3049640796651534,0.3479976845130505
2.4037697955190143,1.4328010967560425,0.331806483397392
2.378128929661227,1.08526269964671,0.2891487282868968
2.3939986707327474,1.1990162273946583,0.2694658703014675
2.3934894772779525,1.3102699817173022,0.2490000282031882
2.4038372309549536,1.4312496329944302,0.2287807099834437
2.383902170025133,1.086640760441745,0.1932655431975346
2.395966382382592,1.1995833501014466,0.171959827455102
2.392423150573544,1.3086010505645231,0.1491170807672734
2.398131304173971,1.4261521820155891,0.1261144626102582
2.3772490868463323,1.0827063094108766,0.0971088157448277
2.372000689653395,1.186031598712528,0.0731503897135086
2.388258747772378,1.3050237186237,0.0491679627917923
2.393762791701369,1.4232149209100935,0.0241575854144774
2.3811079786831586,1.0834102241452552,0.0017806546074025
2.383789485134529,1.1913022427548892,-0.0239073744829148
2.3790980260900185,1.2988319940903337,-0.0494896561177174
2.368004701109941,1.405943218942172,-0.0768279854230901
2.350909625401324,1.0684814272168068,-0.0928845605921964
2.3417632378439768,1.1689717931476415,-0.1185312682143015
2.3423067486834244,1.2773670780804445,-0.1466871897479232
2.3696218177265447,1.405840605817744,-0.1778370857997697
2.3713444904235423,1.0762713078125157,-0.188907005921398
2.345766178484732,1.1695894330623589,-0.2152695419610147
2.364793382191284,1.287863488258714,-0.2465274439868334
2.385174669231495,1.4139424498679565,-0.2812083540398442
2.3451767521007905,1.06247015100032,-0.2817854689458555
2.360972331381201,1.175473845173732,-0.3136984169611253
2.3460797762802685,1.2767697020180515,-0.3435369461406231
2.483419343528952,1.4711281922366088,-0.3997577474530639
2.377982127083984,1.0758821270647425,-0.383043926938529
2.4063776429760084,1.1963510032127638,-0.420108706053556
2.439867178311371,1.326154747979147,-0.4610712709365692
2.4810732573483074,1.4693874317922095,-0.5082908757682023
2.511265360558468,1.134072681457455,-0.5085561538260321
2.477430375290503,1.4674052252797427,-0.6181307724107945
2.436701851516043,1.1009747315160066,0.8172846140455778
2.4491102885233555,1.2203275306370929,0.804091737661869
2.4359674605573267,1.33099499494427,0.7859645477906677
2.445448332819439,1.4576568190113468,0.776801394614543
2.417496510995321,1.0932626115519597,0.7000170399057594
2.4304396380619453,1.21102444872776,0.6870111792012901
2.4254713046258582,1.322897229174952,0.6705826499582612
2.4413198657957462,1.451502577601829,0.6604195301453055
2.4046591578565963,1.0883166985417645,0.591782074203872
2.395895030679605,1.1931333929583487,0.5720910934327661
2.398884531202648,1.307255765288682,0.5562192707515001
2.403419098754635,1.4267550442146786,0.5416234937655438
2.3916297364393704,1.082419854754103,0.487210313284071
2.386848726676345,1.1882123759695655,0.467925158641437
2.388670438804173,1.3008787228202547,0.4505745039923411
2.402961419904734,1.4240455163901768,0.4356600592354018
2.3828676714646413,1.0786045050399131,0.3863804740627223
2.361993897745464,1.1748620563156884,0.363666797684374
2.3804886588842065,1.2948073145199692,0.3472351025768568
2.404736135697008,1.4233964313812508,0.3313355173128016
2.382352800253642,1.0783715783485903,0.2892586695793261
2.388755992488077,1.1872376263742064,0.2684645123502783
2.3939979228517707,1.301018623984506,0.2486365001785874
2.402211301761783,1.4203171806982515,0.2282101743689115
2.3854071361075,1.0785002633111975,0.1931184085301481
2.396060389754409,1.1904508970112837,0.171703646539587
2.3841418498674667,1.2945843801859744,0.1483526517765977
2.398194472022197,1.4162481151152655,0.1258886949482026
2.3823808596213816,1.0762306470316727,0.0971831197832261
2.387268956611503,1.1845248091222558,0.0735088368711305
2.391372305317068,1.2972138248333929,0.0491498988435063
2.388646125276483,1.4102719101832129,0.0240621678264844
2.383509165160472,1.0756885891104833,0.0017799739268349
2.387433191490302,1.1839832345343435,-0.0239073745008929
2.374281221127772,1.2867629569464418,-0.0493071057099384
2.3680014851870284,1.3961331491939917,-0.0766885479555599
2.3696644819379333,1.0682459374057804,-0.0934956421369514
2.3417578603285816,1.160008098021692,-0.1183502940483797
2.3365555834395466,1.2649459293607697,-0.1460833050582128
2.385960820519072,1.4056557277380834,-0.1787388291975176
2.382820544026264,1.072675891797922,-0.1895581571291345
2.358276302152753,1.1668069473468952,-0.2160880485520299
2.3678573667067617,1.2801288211393669,-0.2464362785945485
2.377498132526097,1.3995521999303304,-0.279795753581639
2.3538656498703494,1.0577148806011205,-0.2824382584634046
2.336078898358028,1.1541499521378211,-0.3099189171284214
2.359584632492391,1.2747518284296149,-0.3449401877181022
2.4170569804432245,1.4218170234481458,-0.3883713815411417
2.381271698351656,1.0685815455776684,-0.3830439270465229
2.3985180922135125,1.1832801663246677,-0.4181008339950546
2.4421880036288903,1.3177262612668603,-0.4607436848306341
2.502547586164896,1.4717535096942933,-0.511762788356363
2.5192202993837096,1.128372836338556,-0.5094636356414627
2.52237293126002,1.4835906764254982,-0.62820556636476
2.433086599961874,1.090365179508623,0.8149462044967127
2.4433821978671064,1.208130341096636,0.8009903896510414
2.440039414540375,1.3235153563290294,0.7859645480189978
2.444097460325509,1.446707560771629,0.7749587757078907
2.4146635239632857,1.0830707383080858,0.6982312839141194
2.434143480954526,1.2035622136301347,0.6870111779473255
2.4303730429476493,1.3159125383769192,0.6708185067220979
2.424793090257251,1.4316258502043402,0.6547574491194404
2.407096523656161,1.0805346117682524,0.5915633237968763
2.396037641401895,1.1840442703127494,0.5712550205202841
2.3985744701519778,1.2975587286283543,0.5552217280584305
2.4170879215709715,1.4248587669867336,0.5437161533226963
2.390454605499558,1.0730641111621984,0.4862979463764761
2.3878334863950887,1.1795753514179617,0.4674065963372364
2.3874430178929997,1.2907291727774628,0.4495939460117907
2.4005067152757498,1.4126577290182578,0.4344271977500075
2.3762382657374745,1.066831936378333,0.3847729961741419
2.367363814861606,1.1684869393563444,0.363939906876851
2.3792130667556672,1.2846702945365114,0.3464725192390075
2.4048110457687693,1.4134960883528376,0.3307467725775528
2.382929901390531,1.0698361975080812,0.2889288476536648
2.3914946794011898,1.1794632968354777,0.2683643758864557
2.3900901789674123,1.2894122530378596,0.2478186345114494
2.397103050721248,1.4073897607640806,0.2273136450786282
2.385064922521225,1.069544604344545,0.1928241264627251
2.3844850671459965,1.1755923804564077,0.170614892944264
2.3845864794343816,1.285368698802642,0.1481342452016993
2.398219518723307,1.4063572765127963,0.1256629275553464
2.3874955585894915,1.0697337531276072,0.0972574173898354
2.370265194570616,1.1670393582121694,0.0728746657449419
2.388298233324972,1.2860787857328275,0.0490053947077894
2.3851977027693865,1.398385325435759,0.0239841005957437
2.3913616517024567,1.0704138222600836,0.0017833773242182
2.3883628133769794,1.1753285176360413,-0.0238804612008405
2.3764568027814867,1.278525268244745,-0.0492705942041022
2.3774494477176145,1.391891936324075,-0.0768558728343978
2.3638077171402765,1.0568917898504049,-0.0931361818045514
2.3533745066148977,1.1567843602956478,-0.1187574682021199
2.3641728104526165,1.2705335728565446,-0.1475655534788068
2.354946573218038,1.377669104570956,-0.1760980010776826
2.376082460591721,1.0608875680132828,-0.1887623017473108
2.3493200036488817,1.1534172424165254,-0.2149421342292404
2.342817328909612,1.2573184240904862,-0.2434276149075711
2.3568719146341905,1.377691449310779,-0.2768696423071189
2.35437568554642,1.049274355057539,-0.2821118635790631
2.356549435822064,1.1552826061068782,-0.3121630010877146
2.362610550077356,1.2670379749099672,-0.3448126060900309
2.388905734755104,1.395409772288246,-0.3831583313250535
2.380923083592516,1.0596616036737143,-0.3824631373520152
2.394150715460261,1.1720064339292482,-0.4167107649352701
2.442740750974824,1.3083644303640545,-0.4600885108437688
2.512153682308056,1.4670486798939069,-0.5128043794182614
2.513683205619663,1.1166463383268457,-0.507648673673024
2.4973632306748894,1.458586687275319,-0.6208593552488288
2.4285553823723403,1.0793997460587832,0.8123154369014113
2.442770355035922,1.1985154657241948,0.7995806795309753
2.4415467034871448,1.3146547280421204,0.7851472471339892
2.4410390138257547,1.4348025804772535,0.7725896689863457
2.4135576940919616,1.0736925514699702,0.6969557435994536
2.43434308337605,1.194380631244432,0.6860300848952298
2.425838901952684,1.3038492367641423,0.6684598283554914
2.435055497234298,1.4276282605251116,0.656342868948263
2.4014861336895703,1.0691759777351602,0.5893755959769507
2.394390732286788,1.1741044776318443,0.5700008795106182
2.3973641665292567,1.2874123332445009,0.5540246876646284
2.4129754892366506,1.412477067138954,0.5418137510491962
2.3928372315174804,1.0653252935649953,0.4861154382310437
2.3861346591305823,1.1696429028574058,0.4663694458456149
2.382698951230791,1.2787332645389924,0.4479596469577943
2.3980048109877443,1.4012983109173236,0.4331943357019917
2.369559113081426,1.0551102451247014,0.383165518063435
2.370937548767284,1.1612184905803382,0.36393990699118
2.3778979383270347,1.274553487459232,0.3457099093727875
2.40656348165253,1.4046098606877588,0.3303935553050254
2.3825689172657034,1.060903224316644,0.2884890841746951
2.38259026174194,1.1659977046789336,0.2669624745796977
2.395790516663618,1.2830138386365724,0.2480003697963383
2.4005485633972428,1.3995269462258964,0.2272321360589336
2.385601137049599,1.0610063936770957,0.1926034242539201
2.382701905369858,1.165640068910327,0.1702306217747966
2.3885187440136493,1.2780468505317792,0.1481342452928686
2.393026795328292,1.3934633225926798,0.1251662276264456
2.383460564559836,1.0591574952386686,0.0969602211096782
2.3837142344256312,1.1645888495910686,0.07317796408598
2.3825334146696693,1.2735607636662154,0.0488066991139163
2.3747855740036754,1.3825084507154952,0.023836640555744
2.3937205896642806,1.0626664065793388,0.0017826966499252
2.389261755904797,1.1666793076314124,-0.0238535478815614
2.3812500352456056,1.2716994438461298,-0.0492888517563133
2.386029589471244,1.3871034364654753,-0.0769953033287818
2.3597303703932795,1.046393893082509,-0.0928486114375749
2.345240154920692,1.1438658334302745,-0.1181693345798275
2.368059571793431,1.2632743389947196,-0.1475655532378801
2.340178430045751,1.3594100753811125,-0.1746809751729464
2.353790760447936,1.0422855717681383,-0.1867364882838149
2.359119446777576,1.1492594942458794,-0.2155150983823486
2.3475427016950863,1.2505930120246995,-0.2435187808575818
2.356785236806054,1.367957023449914,-0.2763651482770808
2.365766756928163,1.0456630946966508,-0.2830910206959692
2.35293904578333,1.144572319862525,-0.311218118617475
2.3708640781948738,1.2621139184731307,-0.3454504349122971
2.369183794007796,1.3741585510024037,-0.379317139712104
2.382352679734693,1.0515530875720356,-0.3821727157386746
2.392402669558856,1.1620657106353744,-0.4157840598969511
2.4406458947362504,1.2976222198828955,-0.4589419840469397
2.4961960693253307,1.4474780815826438,-0.5086380737285664
2.510797643769896,1.1061539756329115,-0.5063781432237676
2.5441153795817937,1.4754432559044228,-0.6313539430640834
2.4301053123961704,1.0711725012085052,0.8117308338300043
2.4360843414783484,1.1859759181879383,0.7961974021450746
2.4404771638632634,1.3044365991279423,0.7835126501556869
2.4454294618819854,1.4273068862295175,0.7725896696176419
2.415071181809182,1.0655021331570038,0.6964455283763658
2.428407971728181,1.182238734871815,0.6833320822500215
2.4255407603108385,1.294113546940746,0.667280433823667
2.434373293612041,1.4172106323224924,0.6549839437481279
2.4029697162810773,1.061014979244168,0.5889380383002751
2.3988607397134527,1.167180927512821,0.5702099107678439
2.3961143104701828,1.2772855508954164,0.55282770438977
2.41729759237424,1.4050674568125607,0.5418137511018333
2.3906976135248112,1.055596358524845,0.4850206173141596
2.3843975028510966,1.1597320472204928,0.4653322962521268
2.3805157781024184,1.2681703065938643,0.4468156254604113
2.3988741625261114,1.3919512458254588,0.4325779327087415
2.374594980265644,1.04863492475518,0.3834577902025973
2.371815787664893,1.152640067926809,0.3635302415208715
2.379169933484779,1.265854500107653,0.3453286174985762
2.410002038399696,1.3967221115720398,0.3302758054852294
2.3867217622384604,1.0539901108757186,0.2885990251172013
2.380786021832968,1.156074909153043,0.2663616595541407
2.390042753353113,1.2705156784956209,0.2470007399412482
2.40051819487491,1.3896589062257394,0.2268246193124876
2.3833703581212675,1.0512676062865949,0.1921620078461453
2.383573607674688,1.15701720310685,0.170038486571781
2.388019334272975,1.2683710467781808,0.1478612409625286
2.3972904998684927,1.3861150898326948,0.1251662274209069
2.380297567162444,1.0490191831387183,0.0967001733701098
2.381879051317103,1.1546540457672243,0.0730125314426662
2.382013383029484,1.2639020416430793,0.0487163831494497
2.3876731667092987,1.380220596644715,0.0239233820947956
2.399715038145729,1.05652649212026,0.0017847386861666
2.385630584232304,1.1558556229908783,-0.0237817819434968
2.3860235328954262,1.2648561629996766,-0.0493071055656073
2.3937366741267696,1.3817756214643582,-0.0771068530476874
2.387629341864103,1.0500116689493852,-0.0938191542569951
2.358629596394546,1.141452282631599,-0.1186669881387697
2.368394427247091,1.2541342838939666,-0.1473459551922118
2.350388952930526,1.3557143570599872,-0.1751318538729687
2.38346033910768,1.0466892738403497,-0.1888346469091416
2.3402014454116435,1.1311731132797094,-0.2134687976966106
2.3408044833679496,1.2377988353140392,-0.2424247371835744
2.370452946848951,1.3661848187735777,-0.2774750472072489
2.357127902640072,1.0332121890629014,-0.281676661543361
2.347496718446418,1.13303199137759,-0.3100370236682113
2.369463368851599,1.2520540264841766,-0.3446850504291712
2.3613713568416936,1.35996259704102,-0.3773965582761447
2.3855676389664784,1.044239191645516,-0.3821727161300224
2.402186752893701,1.1577230718913876,-0.4168652280442294
2.435018431115884,1.285063668924804,-0.457140284758458
2.5057456836204723,1.4427615309314064,-0.5096796633614591
2.499761106636826,1.0921464527584497,-0.5034742029272645
2.5418517701996115,1.46372783745348,-0.6296748206455091
2.4289988249637964,1.0617967436762894,0.8102692693543345
2.4405754166742946,1.1789137962547778,0.7964793334339476
2.444467589209927,1.2969431601172394,0.7835126495118769
2.449796768162047,1.4197976926167608,0.7725896685078633
2.420986176671562,1.0592505984110132,0.6972108517985659
2.426785892133413,1.1722528592182997,0.6818604428966695
2.426064466607435,1.2848467573107722,0.6663369514655396
2.4328070280711453,1.4063231809762522,0.653398579847781
2.4044257131321563,1.0528550086578763,0.5885004795391424
2.396265736635389,1.1568397783258697,0.5687467941258195
2.3965572543043154,1.2680952116990387,0.5520296596708085
2.414794499052262,1.3937187854224844,0.5402918049277984
2.390322367635375,1.0466793277766326,0.484290700332104
2.384396090712833,1.1506989457969077,0.4646408813769387
2.384395384080239,1.260860994264868,0.4468156262358914
2.3979966322467368,1.381625462498367,0.4316532863435379
2.3750823822195737,1.040154236635794,0.3830193685704625
2.3726640493166697,1.144067267026967,0.3631205500913954
2.3812881181553154,1.2576228787257664,0.3450744041356642
2.410833027224604,1.387340546534907,0.3298048106321516
2.3890336319650003,1.046264077049197,0.2884890840802675
2.3834252577350767,1.1483334284965203,0.2662615237525743
2.3983333648701235,1.2655009434031312,0.2474551357846887
2.3987216475666813,1.3788108359325175,0.2262540982324537
2.3865844429185934,1.0439506415460065,0.1921620081530554
2.384414867413171,1.148399960244591,0.1698463513957849
2.388366128652613,1.2591760724724614,0.1476428341813085
2.4023982319305617,1.3792512005413982,0.1252113783820155
2.3807576758202478,1.040511034687338,0.0965887274465597
2.373699388938487,1.1417083931822414,0.0726540840893568
2.37614854198184,1.251463060484313,0.0485176872524936
2.3884271952286222,1.3708977100024762,0.0238886847167336
2.3974464705966185,1.046758427091105,0.0017806546064439
2.3756470652637462,1.1420325352213785,-0.0236472189064954
2.3810448081210533,1.252874199931276,-0.0491245552529149
2.3901594333073484,1.3699514939828012,-0.0768558728797444
2.359694359250944,1.0290987644675489,-0.0925969905418774
2.364822205909942,1.135507902937542,-0.118802708361953
2.372230989056584,1.2468623040171762,-0.1473459554659163
2.348475442701889,1.345025452545559,-0.174680974883768
2.3409387766752245,1.0194606417836365,-0.1852171216657392
2.3301810640588174,1.1175234756908512,-0.2122410305568234
2.368398353010257,1.2431073651349105,-0.2448863499166703
2.3642711443781588,1.3529761358876893,-0.2762642670408696
2.365756604821979,1.0283534575173714,-0.2823294512664577
2.348274802504572,1.124537950698619,-0.3096827024802404
2.3557266864636897,1.2355650027574785,-0.3421337052272774
2.386169597489784,1.3645128769215178,-0.3806889995223402
2.3860372959654894,1.0357335248923698,-0.3817371240667336
2.4012706739324847,1.1482167745428211,-0.4160929615941938
2.4389496795948284,1.277587073538785,-0.4571402860727521
2.516999997228969,1.4389774245112696,-0.5110684513475301
2.504904685772535,1.085254019799463,-0.5038371952818629
2.426980431697027,1.0520575812083115,0.8085154625342356
2.4389894726753507,1.1689327017761844,0.7947876924770235
2.443327253263874,1.2867475275833564,0.7818781117213305
2.449124128063056,1.4093879891194756,0.7710102644752098
2.4295467183297603,1.0541272208029813,0.6987414998418113
2.4225026268155165,1.1610311365290382,0.6796529829973914
2.4265541004716917,1.2755889528741002,0.6653934683436101
2.430352175722004,1.3949738840291848,0.6515867193168142
2.404959573468914,1.0443074515490318,0.5878441739794085
2.3936300137173503,1.1465255758833404,0.567283621835623
2.394363795858942,1.2575472503450702,0.5506331230728417
2.4011715665164446,1.376052842153178,0.536296684123352
2.390816714487921,1.0381661384953893,0.4837432901964141
2.380808211648624,1.1399754575668166,0.4632580234433537
2.3847583576224074,1.2517058959295395,0.4461619129544427
2.39707835069578,1.3713182540435505,0.4307286400764925
2.3755403057812217,1.0316804311331609,0.3825809764444903
2.367226472019308,1.1325073334407638,0.3617549177947814
2.385135359523613,1.2503112553763052,0.345074404763411
2.4124913509260906,1.378459646275306,0.3294515925138674
2.384027099238493,1.0353663255134546,0.2874995875644081
2.394118586153474,1.1444487373963816,0.2670626105808955
2.395147032110747,1.2544405732154125,0.2467281088494778
2.3951501025424897,1.366998943052706,0.2255205597709614
2.383371575018681,1.0338456996478755,0.1916470241905821
2.3825241689859324,1.1384976503915614,0.169462079914793
2.3877945855842566,1.2495279333643283,0.1473698158637195
2.396204001507652,1.3659375975710724,0.1246695421440304
2.389440225423173,1.0355864085825883,0.0968116195416686
2.369071526315264,1.1305458921263811,0.0724059277365812
2.379090700212973,1.2437040622109266,0.0484996268732552
2.417816516876749,1.377922223807267,0.0241402367947597
2.3933052279395137,1.0362196406060813,0.0017752091660316
2.3809445896254315,1.1355997216408875,-0.023665159892076
2.387535984463785,1.2469519391287491,-0.0491793206435832
2.386532158874609,1.358162397231872,-0.0766048926281446
2.3692612877668737,1.024631230993533,-0.0928486116700919
2.3556686106880824,1.1222323953073268,-0.1181693344496826
2.347716774887263,1.224799613829726,-0.1455892275457266
2.349121142527133,1.3358408446365622,-0.1744233341482758
2.3468024545176576,1.01346017472533,-0.1854341864134723
2.3362985973424597,1.1116540453572434,-0.2124865872522944
2.3563039257290157,1.2275534943689088,-0.2432452839965243
2.3649508187078685,1.343750334038888,-0.2758606548747692
2.3579459628025097,1.0163687186855204,-0.2810238715686154
2.363373807848101,1.122868057644808,-0.3112181191996504
2.3691835994520014,1.2333698218488611,-0.3435369472121067
2.374839809928927,1.3483823609963128,-0.3782196688236929
2.3955650411853973,1.0311465844015295,-0.3827535316482733
2.3976409799161584,1.1374565232445804,-0.4148573572191261
2.437606198649411,1.2673679968590632,-0.4561575252156102
3.0575435738694665,1.735583412086603,-0.6197398804906951
2.5009941632225967,1.0744586297266123,-0.5023852261867087
2.429317993234858,1.044229046168182,0.8082231597106154
2.434766169865659,1.1577364989153036,0.792250263804656
2.442147112460325,1.2765710041676464,0.7802435128523365
2.448410943732249,1.3989958937658693,0.7694308634075401
2.4336574784296485,1.047050660279138,0.6989966075643652
2.4225512288360718,1.1519283569792227,0.678671891542401
2.4261484915938776,1.265890717853037,0.6642141314780722
2.4337741058199738,1.3870288142139489,0.6513602780603065
2.415321836235775,1.0400114431503509,0.5895943449192358
2.386537111554792,1.1341397497757495,0.5647753392096271
2.3964728717781405,1.2492895853574817,0.5502341294641087
2.4045288157523736,1.3681942199657045,0.5361064283652222
2.3840570183040257,1.0265490539255544,0.4817360455553081
2.3798460958695515,1.1305526716241496,0.4623937267436748
2.3824625305626013,1.2411929327068103,0.4450179188106012
2.388387166347971,1.3566377093999924,0.428417023320823
2.37142545356295,1.0212572675338585,0.3814118908014334
2.367110230368475,1.1235404436108152,0.3612086722040107
2.3915997731519,1.2443614080571423,0.3454557244969232
2.4141179902422234,1.369581706000054,0.3290983467521532
2.378063646995002,1.0241160406382808,0.2864001798586583
2.3940223580347104,1.135392874514897,0.2666620668665257
2.397216934225913,1.246167839386342,0.2465463726905288
2.3967312894322275,1.358170126653783,0.2252760464429047
2.3801189921955976,1.0237702830140645,0.1911320392973328
2.385104134135047,1.130755309964132,0.169398034938455
2.390730715468248,1.2417361754979652,0.1473152177859094
2.407338307269766,1.3625161992135697,0.1250307755519968
2.380670637683096,1.023121401900564,0.0963286801218311
2.3860809472130127,1.1296885679184814,0.0728195169065282
2.387332722164216,1.2387017208832196,0.0485899429669729
2.4011455474213217,1.3586790769897057,0.0239320564365223
2.390040755426083,1.0261106842939305,0.00177044440321
2.3708591913580164,1.121874171570832,-0.0235305967946247
2.3833615623640227,1.235479952007138,-0.0490150243074988
2.393298540783962,1.352309544167475,-0.0766885480091777
2.3668828338878862,1.0149943874676035,-0.0926329393808927
2.372648156089374,1.1214031846680304,-0.1188479482784255
2.3532366862399905,1.218509436692134,-0.1456990195066653
2.33843556125896,1.3202868550107918,-0.1733283521357511
2.362736559137184,1.0117520337610135,-0.1864470925389899
2.3559209519806945,1.1121393147841665,-0.213959909891044
2.352982167368064,1.2166595632819586,-0.2425159020774528
2.3673292526337604,1.3355107329855036,-0.2756588629851437
2.3637953729932404,1.0103019620741984,-0.2813502671988377
2.364112935889531,1.1143418494480568,-0.3108637988060427
2.3491649260238416,1.2138025587226882,-0.3400926607543898
2.384142557175568,1.344008708229906,-0.3790427783684292
2.384157579748595,1.017578015765878,-0.3804302919519465
2.4011193287840613,1.1300952850288497,-0.4148573568741927
2.4309629571720466,1.2544549518198274,-0.4541920312130538
3.031109906427523,1.7083042866164566,-0.6133168229407675
2.4970410459874475,1.063697407965691,-0.5009332568355036
2.4325100981790557,1.0367711819422234,0.8082231587498685
2.435703231575979,1.149033186357293,0.7914044697511663
2.4443439433506597,1.268186348737224,0.7796986089989364
2.4510132029523795,1.3905256449204744,0.7689043759958357
2.429743370455678,1.036544151482457,0.6969557440540798
2.4190595969172417,1.1411816746658263,0.676709706556289
2.4274318672286275,1.257100771910618,0.6635065046268982
2.432084104223833,1.376197892404197,0.6497749147010039
2.4113220727073554,1.0295311694291924,0.587844173901231
2.389120956234339,1.126395579223397,0.5645663640210317
2.3976833840638125,1.2405805152529843,0.5496355807223458
2.40529590061319,1.3588791851027655,0.5353454547698633
2.3871951149940487,1.019230011776809,0.4817360446382364
2.386867250117422,1.1249256326599206,0.4630851415667057
2.384506674741966,1.2329714670344232,0.4446910480961922
2.395980466195648,1.3512452158463264,0.4290334535875316
2.3718179941963227,1.0128115070522885,0.3809734971054274
2.3571023113423344,1.109942397118812,0.3591602090123065
2.3909994176336724,1.234742587510498,0.3448202190083211
2.4079257211539264,1.3563205333819452,0.3276853894653802
2.381194291784151,1.0168153562422084,0.2864001791114284
2.3821893359845405,1.120841591122689,0.2649597579512467
2.3966039634033525,1.2365243775985095,0.2460919783575863
2.396543681411953,1.3483671097605587,0.2248685294788845
2.373158145695633,1.0121596549436669,0.1903227875317074
2.39127118836546,1.124706820799228,0.1695901705231353
2.3918666037736944,1.2330231062907957,0.1471514097812329
2.4115072455460256,1.3551241643992558,0.1250307757939824
2.381959559047448,1.0150293061006024,0.0962543826110732
2.372344471081529,1.1142883087971514,0.0722956364728577
2.384899376142284,1.2281672854354162,0.0484634990983302
2.405302624530287,1.3513060537694133,0.0239320564359043
2.3913373359200496,1.0179899798421634,0.0017690830419402
2.373384787103449,1.1141702531344393,-0.0235216263046835
2.3791390432100643,1.224045326491434,-0.0488507277414783
2.3861026876280387,1.3386025711809209,-0.0763260247020711
2.3975757631615697,1.0194594884744363,-0.0937113215311714
2.3769818248753354,1.1145428247142295,-0.1188931881116785
2.360516184047834,1.2131095714922453,-0.145918617210639
2.366848752924538,1.3267693979114583,-0.1751318541247292
2.351140572050437,0.998261802559696,-0.1852894812276932
2.3511987054134784,1.1011020550921702,-0.2132232555552884
2.3682215890459277,1.215345820288966,-0.2437011405026052
2.3740192825022306,1.3297001100216872,-0.2759615642991458
2.370544673517512,1.0045966039111165,-0.2817854684457868
2.3648220991616715,1.105821722710018,-0.3105094789720947
2.359055675831077,1.2097578236784778,-0.3409856281639388
2.389119220486388,1.337171694538573,-0.3791799595707815
2.378156592568005,1.0064028788909636,-0.3789782641605322
2.401889314162281,1.1214694693130791,-0.4143939900747806
2.4295320653719985,1.2442928280728596,-0.45320930021498
2.4673995117389715,1.380645377521561,-0.4983958498723247
2.4930453381834083,1.052970582472292,-0.4994812294166101
2.433917685689766,1.0285589039577494,0.807638556609227
2.4366100449448136,1.140335101512749,0.790558621944653
2.4439460805963438,1.2584788545559935,0.7783364641065479
2.450224423622824,1.380158620637518,0.767324972169373
2.4177731597715915,1.0226813692740029,0.6926189103985623
2.4216712878852675,1.133343806174168,0.6764644337987423
2.4252272011555926,1.2465378680821846,0.6618553978201424
2.430350475422608,1.365390299596562,0.6481894925991082
2.4162664226186936,1.0228893707398128,0.5882817313359243
2.394336999569471,1.1198891486278777,0.5649843724065297
2.3971198584601456,1.23098051928215,0.548638095894317
2.40260378017025,1.347651173284936,0.5338235102412031
2.3984595552538965,1.0153510599372588,0.4833783305549671
2.3858461380731524,1.1155117813356374,0.4622208743034615
2.3882782107639686,1.2256501867166272,0.4446910488374894
2.401839056776163,1.3448535963553725,0.4293416699381563
2.3694483092387806,1.0032159252708477,0.3800966838999804
2.362291504299557,1.1035442338429848,0.3594333464356474
2.3903628715669214,1.2251391970557246,0.3441847151907434
2.4034081377138743,1.344079758514439,0.326507957162773
2.3778956020476345,1.006792480458326,0.2856305644741702
2.380207368882504,1.1110027782506005,0.2643589434505466
2.398613417320649,1.2282580680622497,0.2459102426240077
2.4006690985272643,1.3410082179290252,0.2248685292362819
2.374414977705497,1.004097242493659,0.1901756384090913
2.3910930546296085,1.1156773851520032,0.1693339897960682
2.387637899324501,1.2215860302933483,0.146659999040488
2.410418856846958,1.3447990734719106,0.1247598430939054
2.3823008705747006,1.0065499798222026,0.0961429296425129
2.3748458149663274,1.106582657865816,0.07226806905601
2.385985388581045,1.2194796926472005,0.0484093110968542
2.3954640962235554,1.3361266998694423,0.0237932688715674
2.3916853537683096,1.009482045447124,0.0017670410009057
2.3776983696366574,1.1073056913026549,-0.0235305968379969
2.378430874034028,1.2144669644601902,-0.0487594507486951
2.37011256750234,1.3200886936843317,-0.0756846268212012
2.376749646291976,1.0020052879393988,-0.0927767209109608
2.375861037415409,1.1051384239975153,-0.1186669880075733
2.3615584781915158,1.2045009920790526,-0.1457539154573263
2.373523929675036,1.320957620974344,-0.1753250776076216
2.3137451758544505,0.9740169412037394,-0.1821060566680034
2.3428153864993138,1.0884245929624297,-0.2121591783193596
2.351529430715013,1.1976794698991164,-0.2416041891981496
2.373740128823467,1.3199928698981334,-0.2754570422288707
2.365367659163595,0.9938535367894156,-0.2808062846325735
2.3718067576681623,1.1002328267514516,-0.3109819058984703
2.3565685015272515,1.1993654768532354,-0.3400926609434648
2.393210193359657,1.3298357470083946,-0.3791799587437942
2.381233007685228,0.9991019988764136,-0.3789782640207357
2.398146583061479,1.1107733432011444,-0.413158385089129
2.4271821202521062,1.2337043267575538,-0.4520627741989383
2.452684155979946,1.3625474470763814,-0.4945767422600717
2.4926357714570244,1.0437977134993484,-0.4987552444588389
2.437943877652622,1.0214565089041,0.8079308587024026
2.4322652469053576,1.1292182392191097,0.7880211934766529
2.4443683932761924,1.249223548742228,0.7772467696883193
2.4409751189748974,1.3651007800246406,0.763113248721489
2.424465946661161,1.0167547559942356,0.6936393412727612
2.4181025010193355,1.122642992942789,0.6745022490376245
2.429905712782242,1.2395331463559578,0.6620913105657656
2.431976172342589,1.3565043174095095,0.6475100599531449
2.4067967751011685,1.0101845335833386,0.5852188861330598
2.402196925129711,1.11459613844234,0.5660294807236962
2.3965198950567883,1.221395694862988,0.547640553218739
2.405869284346974,1.339796143253754,0.5336332529792719
2.3979369056211173,1.006465858436037,0.4826484125169441
2.381215435399028,1.104456890869827,0.460665161044447
2.392027143418529,1.218317265674456,0.4446910482443288
2.4033629830366614,1.3360383013706605,0.4288793468655957
2.3706907578921546,0.9951759779647236,0.3798044131043879
2.3620708176686853,1.0946256212817669,0.3588870999705428
2.38792179109448,1.2146520285151683,0.343295026989563
2.405784213862885,1.335735796450913,0.3262724606706129
2.378223836033408,0.9983383498170983,0.28530074209375
2.383604686816319,1.103695244542966,0.2643589436583334
2.398819291377051,1.2190886787878383,0.2455467437553887
2.4039002460841137,1.333153382697574,0.2247870339529386
2.375644971573037,0.996036693462446,0.1900285044695613
2.388165320346694,1.1054019819104182,0.1688856880934082
2.3940453472845395,1.2156112926357336,0.146823807235371
2.4040469094079757,1.3315892164498049,0.1242180069651248
2.380769271853547,0.9973058825002348,0.0959571865622076
2.373692763149929,1.0971943740429926,0.0721302036483699
2.391498662893232,1.2130584293395072,0.0484454351953473
2.3995521115643528,1.3287712683751138,0.0237932689228365
2.388313674651356,0.9994374537858248,0.0017622762359838
2.381084353618148,1.1000057762657698,-0.0235305968357675
2.376794373099933,1.2044526900181032,-0.0486499197150428
2.383773889264408,1.318131889443532,-0.0759913819128596
2.3816566292490715,0.995479556519788,-0.09284861153178
2.350214217578768,1.0844507432921635,-0.1172192734832651
2.3527705972099398,1.1909369318838965,-0.1449853573952907
2.350488134495359,1.2987085269878595,-0.1733283521703853
2.3342107390071747,0.9742129091924052,-0.1834807187050406
2.3570053804844604,1.086237434120493,-0.2131414027700478
2.3765229143468005,1.201240998042013,-0.2437923057521876
2.3821334884180487,1.3151083253355171,-0.2759615642297929
2.3739112643809523,0.988885618322892,-0.281459073818849
2.375171108191312,1.0929510370431812,-0.3109819061329008
2.354925147478584,1.1894470238365498,-0.3393272485839794
2.386003727625928,1.3162671521215346,-0.3773965583454902
2.376978864068378,0.9887518059492248,-0.377816658309122
2.3916675979174133,1.0988734263582212,-0.4114594147661018
2.427432417706791,1.224474846072568,-0.4514075996584092
2.4559904085959063,1.3545406604821466,-0.4944031714006542
2.490377117485208,1.0338831862905722,-0.4976662685254437
2.4375336278993185,1.0125047511476448,0.8067616543132998
2.4357182038244,1.1217508242574847,0.788021193520696
2.4396084550992847,1.2373661655604282,0.7745224233335403
2.443464590978852,1.3566688965975966,0.7625868160485852
2.4186456376055245,1.005599679796802,0.6910882611045025
2.42065468601682,1.1148135499262344,0.6742569748618953
2.42676102319064,1.2285610498863813,0.6602042895695063
2.431013844013912,1.3462055425199058,0.6461511915953118
2.401776573301904,0.9994219098511802,0.5832499065715382
2.406493506447549,1.107629893333652,0.5662385136495786
2.392386132208276,1.2100570955918435,0.5458450225236696
2.4091092937362437,1.3319336863897226,0.5334429960253482
2.403736726245228,1.0002375379610091,0.4831958228641029
2.374750170495186,1.0926177113191973,0.4587637151720644
2.393112274192657,1.2096377927009645,0.4442007702406411
2.4031252615593486,1.3262714406379386,0.4281088075625254
2.3819526083205496,0.9913191398872664,0.3811196193842897
2.361817780236883,1.0857186890834047,0.3583408539672648
2.381011371682759,1.2019563094482684,0.341769832726731
2.404652713585765,1.3254724043052293,0.3255659956097341
2.379440278962731,0.990273508797932,0.2850808605702572
2.392404411767642,1.0988689321620906,0.2649597578442419
2.393656281536176,1.2072389042923934,0.2446379812583837
2.412344451989556,1.3281755157988917,0.225194550971075
2.380531459982316,0.9895092415469284,0.190175639043257
2.3851969072106254,1.095155175606631,0.1684373718259904
2.392413383741775,1.205564650010765,0.1464961906211057
2.3976163571253166,1.3184311756183162,0.1236761560220787
2.393046511555756,0.993829790363493,0.0963286797968788
2.3734131306550363,1.0882403591388814,0.0720199127787655
2.3907437388457997,1.2034679149760097,0.0483551193135817
2.398359675990872,1.318512819524602,0.0237412246504324
2.386750508969467,0.9901894911460248,0.0017588728402042
2.3762664456365257,1.088946350017864,-0.0234498586554676
2.3742257197203718,1.1940106211194557,-0.0485221347425144
2.3834255395969075,1.3084072568818776,-0.0758519518414753
2.370851221781654,0.9824295692102324,-0.0923094207593565
2.3598887219045244,1.0801456326393322,-0.1175359605967042
2.3439219845213666,1.1774382401564776,-0.1442167856919081
2.35708614473556,1.292931016668364,-0.1735215896909438
2.3270510837155287,0.9628524449132632,-0.1826848631343778
2.3639525449414456,1.080658638691678,-0.2134687971081877
2.349932930053071,1.1787632065581513,-0.2406924773895214
2.35736619741402,1.292014289384008,-0.2726318421444582
2.377852774606586,0.9819772848804332,-0.2815678815180603
2.3586392734328627,1.0765877503191448,-0.3083835003369108
2.3780702318103586,1.1919944387866803,-0.3421337048139667
2.367442371051037,1.296569849030209,-0.3738297564133441
2.359878110303717,0.9731564626350137,-0.3746222067573344
2.390532597890477,1.089482026055016,-0.4106871485353231
2.415299066958074,1.2090732170819587,-0.4484593742701553
2.446313602436889,1.3394320552012025,-0.4916255971276577
